-0.130127 -0.042847 -0.186890 0.026108 0.456787 -0.889160
0.625488 -0.039703 0.061737 0.319336 0.532715 0.783691
-0.620117 0.085205 -0.121399 0.402588 0.903809 0.144287
0.040894 -0.109802 -0.234009 0.065857 -0.985352 -0.157959
-0.113342 -0.086853 -0.389648 0.414795 -0.286133 -0.863770
-0.455322 -0.063965 -0.458496 -0.035156 0.999023 0.021744
0.551270 -0.091675 0.105713 0.287842 -0.756836 0.586914
0.151611 0.057159 0.059448 -0.153564 0.973633 0.167725
-0.065125 -0.106323 -0.309326 0.065613 -0.988281 -0.137573
-0.500977 -0.108887 -0.001547 -0.078186 -0.991699 -0.103210
-0.213745 -0.066711 -0.413818 0.059784 0.982422 -0.176636
0.166870 -0.114929 0.101074 -0.005569 -1.000000 -0.000192
-0.375488 -0.077148 0.497070 0.271484 0.839844 0.469971
-0.427734 -0.110168 -0.388184 -0.005569 -1.000000 0.008446
-0.211548 -0.027069 0.160400 -0.227173 0.940918 0.250977
-0.429199 -0.071228 0.504883 0.055664 0.930176 0.363525
-0.441650 -0.077148 -0.149170 -0.432861 0.761230 -0.482910
0.367188 0.085327 -0.042084 0.153564 0.774902 -0.613281
-0.339600 -0.065552 -0.192627 -0.134766 0.986816 0.087341
0.258789 0.042755 -0.084229 0.113098 0.505371 -0.855469
-0.276367 -0.023041 -0.086365 -0.227905 0.941895 -0.246704
-0.610352 -0.055847 -0.039154 -0.205688 -0.840332 -0.501465
0.252686 -0.101929 -0.189453 0.065674 -0.988281 -0.137573
0.070557 -0.039093 0.205933 -0.085754 0.604004 0.792480
-0.408203 -0.059113 -0.101807 -0.213135 0.954102 -0.210205
-0.106201 0.011971 0.085815 -0.153564 0.973633 0.167725
0.558105 -0.059052 0.100159 0.218628 0.593262 0.774902
0.703613 -0.052185 0.032166 0.195190 0.734375 0.649902
0.025269 -0.072571 -0.329834 0.216553 0.697266 -0.683105
0.497070 -0.090393 0.130249 0.237671 -0.578613 0.780273
0.235107 0.071777 0.051147 -0.152832 0.974121 0.167725
0.128540 0.051575 -0.070129 -0.153442 0.974609 -0.164062
-0.446533 -0.109985 -0.407227 -0.005440 -1.000000 -0.004097
0.215698 0.023071 0.127319 0.100891 0.979004 0.176392
0.101807 -0.114258 -0.102478 -0.003456 -1.000000 -0.010750
-0.139404 0.009460 0.070068 -0.153564 0.973633 0.167725
0.314941 -0.073486 0.210205 0.273193 0.692383 0.667969
0.104370 -0.031891 0.203979 -0.072571 0.604980 0.792969
0.449463 -0.109192 0.045532 0.065613 -0.988770 0.134155
0.171753 -0.093811 -0.266113 0.164795 -0.783691 -0.598633
-0.085876 -0.035675 0.186646 -0.085205 0.595703 0.798828
-0.191650 -0.104309 0.394775 0.065613 -0.988281 0.138672
0.365234 -0.100159 0.153442 0.065674 -0.988770 0.134277
0.438232 0.020370 -0.073730 0.113159 0.505371 -0.855469
0.210693 -0.105896 -0.180786 0.065674 -0.988281 -0.137695
-0.596680 -0.091980 -0.010132 -0.764160 0.017212 -0.644531
0.105286 0.024979 -0.144897 -0.089417 0.910645 -0.403809
-0.689453 -0.002481 0.081909 -0.459229 -0.725098 0.512695
-0.320068 -0.064209 0.326904 -0.084534 0.991699 -0.096069
0.465820 0.013985 0.075378 0.119629 0.530762 0.838867
0.096741 -0.108215 -0.218628 0.065613 -0.988281 -0.137573
-0.429199 -0.110596 0.370117 -0.069458 -0.994141 -0.080627
-0.247192 -0.061218 0.296143 -0.038025 0.998535 -0.039825
-0.702637 0.036865 -0.075378 -0.119324 0.495117 0.860352
0.406494 -0.091370 0.168823 0.563477 -0.662598 0.493164
-0.466064 -0.013199 -0.077515 0.080444 -0.485596 -0.870605
0.619141 -0.018356 0.049744 0.325195 0.531738 0.782227
-0.024750 0.024841 0.085693 -0.153564 0.973633 0.167725
-0.260010 -0.104492 0.424805 0.064514 -0.972168 0.225098
0.335693 0.010185 -0.132812 0.100647 0.980469 -0.169556
-0.165527 -0.059143 -0.304688 -0.007614 1.000000 -0.013695
0.770020 -0.091431 -0.011696 0.306641 -0.856445 -0.415283
-0.371338 -0.021576 0.024948 0.102112 0.796875 -0.595703
0.349121 -0.042938 0.176758 0.123169 0.422363 0.897949
-0.494385 0.008507 0.044312 0.028320 0.685059 -0.728027
-0.429199 -0.067810 -0.351318 -0.035095 0.999023 0.034210
-0.308350 -0.114136 -0.006889 -0.003008 -1.000000 -0.011200
-0.347900 -0.042542 0.093689 -0.231689 0.939941 0.250732
-0.513184 -0.094971 -0.394287 -0.513184 -0.647461 0.563477
-0.334473 -0.103455 -0.458252 0.065613 -0.988281 -0.137573
-0.482910 -0.071533 0.102356 -0.330811 0.879883 0.341064
0.278564 -0.107178 -0.139160 0.065674 -0.988281 -0.137451
-0.108704 -0.109680 0.315674 0.073303 -0.986816 0.142822
-0.155884 -0.113342 -0.115051 -0.003008 -1.000000 -0.011200
-0.287598 -0.057434 -0.205322 -0.258545 0.906738 -0.333008
-0.293213 -0.028580 -0.091797 -0.231323 0.940918 -0.246460
0.155151 0.065308 0.015144 -0.154785 0.981445 0.112671
0.096191 -0.109070 0.219116 0.065369 -0.988770 0.134277
-0.220947 -0.063477 -0.238403 -0.078125 0.992676 0.091064
-0.063782 -0.017090 0.175171 -0.085144 0.595703 0.798828
0.037781 -0.114258 0.178467 -0.005630 -1.000000 -0.000256
-0.333496 -0.070312 0.468506 0.095398 0.982422 0.160522
-0.591797 -0.095154 -0.466797 -0.556641 -0.590820 0.583984
-0.456543 -0.013084 -0.076721 0.079285 -0.489502 -0.868652
0.524902 0.033295 0.052856 0.254639 0.471680 0.844238
-0.552246 -0.091187 0.051331 -0.666016 -0.003771 0.746094
-0.681152 -0.005241 -0.080627 -0.219604 -0.709961 -0.668945
0.436523 -0.096741 0.142578 0.181030 -0.950195 0.254395
-0.480957 -0.109619 -0.458984 -0.005886 -1.000000 -0.003136
0.607422 -0.094971 0.072754 0.065613 -0.988281 0.136108
-0.375732 -0.063904 0.414062 -0.035553 0.999512 0.013618
0.626465 -0.039581 0.061279 0.319336 0.532715 0.783691
0.313477 0.011635 0.134766 0.100891 0.979004 0.176392
-0.232666 0.002554 0.024719 -0.153564 0.973633 0.167603
0.324463 0.016083 0.104492 0.123108 0.960938 0.248047
0.530273 -0.102600 0.054382 0.065613 -0.988770 0.134277
-0.250244 -0.112610 0.197876 -0.031586 -0.999023 0.032349
-0.110291 0.004333 0.126465 -0.153564 0.973633 0.167725
-0.510742 -0.109436 -0.464111 -0.005886 -1.000000 -0.003136
0.278320 0.079224 0.047180 -0.150635 0.955078 0.254883
-0.057373 -0.059143 0.268799 0.006573 0.996582 0.079407
-0.578125 -0.096985 -0.456543 -0.483887 -0.738770 0.468750
-0.311279 -0.111572 0.281250 -0.054840 -0.995117 -0.082031
0.382812 0.032654 0.075378 0.113953 0.504395 0.855957
0.412109 -0.094788 -0.158813 0.103638 -0.938477 -0.328857
0.722656 -0.080933 -0.045929 0.487305 -0.462158 -0.741211
-0.096863 0.014320 -0.080627 -0.153442 0.974609 -0.164062
0.051819 -0.042877 -0.204346 -0.080933 0.584961 -0.807129
-0.165161 -0.019165 0.172119 -0.189941 0.826660 0.529785
0.092163 -0.025345 -0.195557 -0.081604 0.592773 -0.801270
-0.044128 0.020111 0.095398 -0.153564 0.973633 0.167725
0.311523 -0.029633 0.175659 0.123169 0.422119 0.897949
-0.700195 0.104309 0.133545 0.101562 0.950684 -0.292725
-0.311768 -0.111023 -0.337891 -0.005440 -1.000000 -0.004097
0.037079 -0.113403 -0.212280 -0.005886 -1.000000 -0.008705
-0.373291 -0.008018 0.044708 0.281250 0.801270 -0.527832
-0.533203 -0.108276 0.513672 -0.070374 -0.994629 0.074463
-0.449219 -0.065613 0.456299 -0.035553 0.999512 0.007866
0.685059 -0.077515 0.061554 0.345703 0.438232 0.829590
0.052277 0.042938 0.051025 -0.153564 0.973633 0.167725
-0.609375 -0.055115 0.042511 -0.613281 -0.704102 0.357910
-0.449219 -0.074402 -0.137939 -0.440674 0.774902 -0.452881
0.102112 0.048981 -0.060852 -0.153442 0.974609 -0.164062
0.144287 0.057526 0.050598 -0.153564 0.973633 0.167725
-0.485596 -0.020569 -0.075745 0.102051 -0.454590 -0.884766
-0.514160 -0.105652 0.026306 -0.078186 -0.992676 0.091980
0.156982 -0.113159 -0.156128 0.083191 -0.983398 -0.161011
0.281006 0.079285 -0.047485 -0.149048 0.946289 -0.287598
-0.314697 -0.110840 0.155151 -0.098083 -0.990234 0.098877
-0.266602 -0.110107 -0.233887 -0.070740 -0.994629 0.077515
-0.174683 -0.114136 -0.041107 -0.003008 -1.000000 -0.011200
-0.403564 -0.062805 -0.434570 -0.007744 1.000000 0.015167
0.260498 0.014839 -0.148682 0.142700 0.958008 -0.249634
0.152466 -0.115356 0.032623 -0.003008 -1.000000 0.007553
0.146118 -0.115295 0.033295 -0.003008 -1.000000 0.007553
-0.291504 -0.110291 -0.178345 -0.101624 -0.989258 -0.103882
-0.293457 -0.113770 0.061676 -0.003008 -1.000000 0.007488
-0.115601 -0.113342 0.284912 -0.005886 -1.000000 0.015488
0.265381 -0.115723 -0.017090 -0.003008 -1.000000 -0.011200
0.728027 -0.095825 0.006622 0.065735 -0.990723 0.118896
0.433838 -0.103638 -0.090393 0.065674 -0.988281 -0.137573
-0.261719 -0.111267 0.384766 0.028824 -0.992188 0.123047
0.028320 -0.057098 -0.225464 -0.006783 1.000000 0.001920
-0.453857 -0.071045 -0.352051 -0.239014 0.930664 0.276611
-0.522949 0.034241 0.108154 0.192749 0.043274 0.980469
-0.454346 -0.109863 -0.436523 -0.005886 -1.000000 -0.003328
-0.074890 -0.109436 0.300293 0.066284 -0.988770 0.135498
-0.555176 -0.072327 0.513184 -0.240112 0.941895 0.234863
-0.357178 -0.043243 0.087769 -0.231689 0.939941 0.250732
-0.520996 -0.105652 -0.420410 -0.192871 -0.951172 0.241333
0.428711 -0.102722 0.103516 0.065613 -0.988770 0.134277
-0.435791 -0.068176 0.108032 -0.198853 0.944336 0.261719
-0.423340 -0.110779 0.367188 -0.069458 -0.994141 -0.080627
0.057953 -0.113647 -0.191650 -0.005886 -1.000000 -0.003136
-0.533691 -0.107361 -0.499268 -0.070435 -0.995117 -0.066345
0.125000 0.000587 -0.179688 -0.081970 0.593262 -0.800781
-0.055878 -0.066711 -0.352783 0.059418 0.977539 -0.203003
-0.252197 -0.113342 -0.090637 -0.002943 -1.000000 -0.011200
0.137695 -0.100464 0.262207 0.065674 -0.988770 0.134277
0.186157 -0.053497 0.208740 0.031525 0.795898 0.604492
-0.250244 -0.085571 -0.446777 0.417236 -0.194458 -0.887695
0.203369 -0.103027 -0.204834 0.065674 -0.988281 -0.137573
-0.092041 -0.042145 0.190796 -0.085144 0.595703 0.798828
0.034241 0.038757 0.058838 -0.153564 0.973633 0.167725
0.436035 0.030396 0.069580 0.113953 0.504395 0.855957
0.381348 -0.052612 -0.170898 0.470459 0.455322 -0.755859
-0.493408 -0.095886 0.101746 -0.499268 -0.673828 0.544434
-0.598633 0.068726 -0.128296 0.411377 0.429199 -0.804199
0.476074 0.009544 -0.074646 0.166748 0.502930 -0.848145
0.507812 0.019592 0.063354 0.185547 0.500000 0.846191
-0.174927 -0.109680 -0.342041 0.099976 -0.979492 -0.175903
-0.097229 0.015503 -0.073242 -0.153320 0.974609 -0.163818
-0.456787 0.016068 -0.056274 0.125732 0.794434 0.594238
0.326660 0.012375 -0.125488 0.100647 0.980469 -0.169556
-0.004478 -0.113770 -0.118896 -0.003008 -1.000000 -0.011200
0.717285 -0.083069 0.046478 0.323486 -0.773438 0.544922
-0.129639 -0.058167 -0.234863 -0.006847 1.000000 0.001856
0.232300 -0.115601 -0.021347 -0.003008 -1.000000 -0.011200
0.200562 -0.115479 0.029907 -0.003008 -1.000000 0.007488
-0.407959 -0.084106 0.296143 -0.669434 0.028229 -0.742676
-0.064697 -0.074341 0.366943 0.305176 0.730469 0.610840
-0.027664 -0.114624 0.055359 -0.003008 -1.000000 0.007488
-0.603027 0.045990 0.075684 0.014603 0.649414 -0.760254
-0.170166 -0.016327 0.157593 -0.249756 0.925781 0.284180
-0.621582 0.077148 -0.135742 0.469727 0.222900 -0.854492
-0.052948 0.009094 0.144897 -0.136353 0.916504 0.376465
-0.011650 -0.102966 0.316650 0.066101 -0.988770 0.134155
0.173340 -0.114685 -0.087158 -0.003008 -1.000000 -0.008125
0.375244 0.099182 -0.018433 -0.153931 0.977051 -0.146484
-0.029739 -0.062378 -0.316406 0.028107 0.991699 -0.126221
0.174438 -0.046112 0.203003 0.130127 0.481689 0.866699
0.413086 -0.106873 -0.077209 0.065613 -0.988281 -0.137573
-0.415771 -0.029343 0.065247 0.073730 -0.496338 0.864746
-0.298584 -0.111206 -0.303467 -0.005375 -1.000000 -0.004158
-0.178833 -0.096252 0.413574 0.283936 -0.737305 0.612793
-0.306396 -0.061493 -0.336182 -0.070557 0.995605 0.064941
0.247070 -0.106079 -0.162109 0.065613 -0.988281 -0.137573
-0.471191 -0.025528 0.015884 0.015701 0.598633 -0.800781
-0.261475 -0.014343 -0.066833 -0.226440 0.942383 -0.246826
-0.205933 -0.088867 0.428223 0.366699 -0.082214 0.926758
0.065063 -0.103333 -0.268555 0.065613 -0.988281 -0.137573
0.108521 0.056183 -0.024033 -0.153442 0.974609 -0.164062
-0.300781 -0.008049 0.007950 -0.207275 0.947754 0.243042
-0.122437 -0.064514 -0.366455 0.059906 0.985352 -0.159058
-0.478516 -0.102844 -0.525391 0.097900 -0.953613 -0.285400
-0.533691 -0.058655 0.054718 -0.141357 -0.644531 0.751465
-0.148315 0.003748 0.095032 -0.153564 0.973633 0.167603
0.169800 0.061493 0.050903 -0.153564 0.973633 0.167725
-0.458496 -0.102051 0.111877 -0.078247 -0.992676 0.092163
-0.313477 -0.011002 -0.007210 -0.204590 0.935547 -0.288574
-0.201172 -0.114014 -0.042633 -0.003008 -1.000000 -0.011200
-0.216919 -0.064331 0.226562 -0.084961 0.996094 0.010201
-0.383545 -0.111938 0.418701 -0.005886 -1.000000 -0.000768
0.539551 -0.074890 0.119751 0.324463 0.580078 0.747070
0.469238 -0.057922 -0.121155 0.005730 0.591309 -0.806641
0.026443 -0.114563 0.089294 -0.003008 -1.000000 0.007488
0.226074 -0.111877 -0.130371 0.067627 -0.987793 -0.139648
-0.132812 -0.114319 0.055237 -0.003008 -1.000000 0.007553
-0.168335 -0.113770 -0.074219 -0.003008 -1.000000 -0.011200
0.138428 -0.114929 0.079834 -0.003008 -1.000000 0.007553
-0.145874 0.008942 -0.066772 -0.153442 0.974609 -0.164062
-0.116272 0.004787 -0.119141 -0.153442 0.974609 -0.164062
0.229004 -0.108826 -0.151001 0.065674 -0.988281 -0.137573
0.060333 0.051178 -0.007397 -0.154053 0.978516 -0.137695
0.119385 0.032440 0.129150 0.088379 0.973145 0.212891
0.338867 -0.103271 -0.138550 0.065613 -0.988281 -0.137573
0.349854 -0.113464 0.062988 0.065613 -0.988770 0.134277
0.429688 0.011826 0.085815 0.098816 0.849121 0.519043
-0.281982 -0.113403 -0.078796 -0.003008 -1.000000 -0.011200
-0.269043 -0.114014 -0.028275 -0.003008 -1.000000 -0.011200
-0.201050 -0.014168 0.121521 -0.227173 0.940918 0.250977
-0.373291 -0.113342 -0.060547 -0.003008 -1.000000 -0.011200
-0.420654 -0.081482 -0.519043 0.364014 -0.087158 -0.927246
-0.537598 -0.106018 0.525391 -0.221436 -0.923828 0.312012
-0.453369 -0.009750 0.029373 0.027435 0.667480 -0.744141
-0.618164 0.084656 -0.122559 0.402588 0.903809 0.144287
-0.305420 -0.105286 0.216309 -0.303711 -0.923828 0.232178
0.312744 -0.109985 0.106750 0.065613 -0.988770 0.134277
-0.412842 -0.066895 -0.360840 -0.034851 0.999023 0.034637
-0.086121 -0.057861 -0.232788 -0.006783 1.000000 0.001920
-0.160400 -0.112061 -0.278809 -0.005440 -1.000000 -0.004097
-0.290039 -0.038879 -0.134033 -0.231323 0.940918 -0.246582
-0.787109 0.094360 -0.150269 -0.054657 0.720703 -0.690918
-0.255859 -0.105469 -0.406494 0.065674 -0.988281 -0.137573
0.260498 -0.115845 0.006016 -0.003008 -1.000000 0.006721
-0.086060 -0.112854 -0.184692 -0.005440 -1.000000 -0.004097
-0.185181 0.010521 0.021957 -0.153564 0.973633 0.167725
0.291992 0.085815 0.021729 -0.153564 0.973633 0.167725
0.204956 -0.099426 0.236084 0.064880 -0.978027 0.198608
0.138916 -0.059204 0.224731 0.105164 0.977051 0.185181
0.224487 -0.114990 -0.072693 -0.005375 -1.000000 -0.005630
0.370605 -0.102844 -0.126343 0.065674 -0.988281 -0.137573
-0.527832 0.006496 -0.040253 -0.021194 0.642090 0.766602
0.379150 -0.056885 -0.174561 0.441162 0.426758 -0.789551
-0.309570 -0.061279 -0.381592 -0.007549 1.000000 -0.013695
-0.370117 -0.024948 -0.010185 -0.200806 0.918457 -0.340576
-0.094116 -0.105652 0.337646 0.065613 -0.988770 0.134277
-0.246338 -0.112549 -0.164795 -0.003008 -1.000000 -0.011200
-0.058929 -0.057678 -0.233154 -0.006847 1.000000 0.001984
-0.047638 -0.114502 -0.042847 -0.003008 -1.000000 -0.011200
-0.210938 -0.023315 0.146973 -0.227173 0.940918 0.250977
-0.585938 0.000726 0.040253 -0.092957 0.587402 -0.803711
-0.548340 0.055817 -0.091919 0.104492 0.814941 0.569824
-0.381104 -0.075684 0.203491 -0.456543 0.675293 0.579102
-0.681152 -0.006920 -0.078796 -0.219604 -0.709961 -0.668945
0.034760 -0.002464 0.174805 -0.085144 0.595703 0.798828
0.210083 -0.114502 0.121826 0.087036 -0.996094 0.001211
0.228638 -0.115234 -0.053101 -0.003008 -1.000000 -0.011200
-0.086853 -0.060791 -0.318359 0.026978 0.996582 -0.079651
-0.272461 -0.061157 -0.308838 -0.061279 0.995605 0.074158
-0.125366 0.016144 0.044037 -0.153564 0.973633 0.167725
-0.496094 -0.076172 0.100159 -0.505371 0.664062 0.550781
0.177734 -0.060089 0.217896 0.031525 0.795898 0.604492
-0.015747 -0.028763 0.188965 -0.085144 0.595703 0.798828
-0.044678 -0.058441 0.219116 -0.006783 1.000000 0.001920
-0.513672 -0.099548 0.397949 -0.526855 -0.634766 -0.565430
-0.053192 -0.109802 0.286865 0.068604 -0.988770 0.134399
0.198364 -0.099731 -0.231079 0.065674 -0.988281 -0.137695
-0.456543 -0.109741 -0.454102 -0.005886 -1.000000 -0.003136
-0.399414 -0.011452 0.033295 0.116272 0.780762 -0.614258
0.431152 -0.112244 0.032135 0.065613 -0.988770 0.134277
-0.263916 -0.081787 0.453369 0.369141 -0.029190 0.928711
-0.321777 -0.113525 0.081116 -0.002943 -1.000000 0.007488
-0.308594 -0.113831 -0.032532 -0.003008 -1.000000 -0.011139
-0.149170 -0.113892 -0.069763 -0.003008 -1.000000 -0.011200
-0.561035 -0.100464 -0.515625 -0.297852 -0.907227 -0.296387
0.250244 -0.004650 -0.170410 0.124023 0.421387 -0.898438
-0.183960 -0.060577 0.310547 -0.007549 1.000000 0.017731
-0.101135 -0.036591 0.185669 -0.085144 0.595703 0.798828
0.185669 0.025314 0.132080 0.100891 0.979004 0.176392
0.486816 -0.098328 0.107483 0.065674 -0.988770 0.134277
0.424316 0.011612 0.087158 0.098816 0.849121 0.519043
0.069519 -0.115051 -0.024124 -0.003008 -1.000000 -0.011200
0.436523 -0.040802 -0.129517 0.470459 0.455322 -0.755859
-0.443848 -0.067322 -0.505371 0.059967 0.985352 -0.160400
-0.111633 -0.099915 0.378662 0.290283 -0.801270 0.522949
-0.260986 -0.111450 0.202026 -0.098083 -0.990234 0.098877
0.066833 -0.113831 -0.142578 -0.005440 -1.000000 -0.004097
0.471680 -0.104004 0.073181 0.065613 -0.988770 0.134277
0.259521 0.002745 -0.164673 0.106445 0.627930 -0.770996
-0.178833 -0.113342 -0.112671 -0.003008 -1.000000 -0.011200
0.244263 0.039642 -0.088013 0.113159 0.505371 -0.855469
-0.597168 -0.021652 0.081482 -0.063782 -0.648926 0.758301
-0.436523 -0.013741 0.026566 0.064453 0.677246 -0.732910
-0.243286 -0.095093 -0.440674 0.223755 -0.776855 -0.588379
-0.662598 -0.008995 -0.081543 -0.133423 -0.720703 -0.680176
0.022171 -0.114197 -0.088989 -0.003008 -1.000000 -0.011200
0.111633 -0.114929 0.072144 -0.003008 -1.000000 0.007488
-0.732422 0.044891 -0.124573 -0.070618 -0.678711 -0.730957
-0.512207 -0.009605 0.028244 -0.013748 0.619141 -0.785156
-0.263916 -0.001886 0.018661 -0.227173 0.940918 0.250977
-0.187500 -0.066345 0.392822 0.122925 0.978516 0.164307
-0.309082 -0.065735 0.301758 -0.084534 0.991699 -0.096069
-0.553223 0.037720 -0.113708 0.272217 -0.272949 -0.922852
-0.578125 -0.041687 -0.063354 -0.045074 -0.697266 -0.715820
-0.002699 -0.062988 0.301270 0.057648 0.992188 0.112183
-0.228027 -0.085083 -0.438232 0.365967 -0.184326 -0.912109
-0.339600 -0.112122 0.326904 -0.005695 -1.000000 -0.015549
0.342041 -0.052155 0.182251 0.121155 0.451904 0.883789
0.533203 -0.004211 0.072083 0.129639 0.497070 0.857910
0.202026 0.065796 0.055634 -0.153564 0.973633 0.167725
0.017105 -0.057159 -0.229736 -0.006847 1.000000 0.001984
-0.767578 0.050110 0.116577 -0.424561 -0.898926 0.109802
-0.591309 -0.033752 -0.019333 -0.119324 0.495117 0.860352
0.025238 0.029968 0.101685 -0.153564 0.973633 0.167725
0.048584 0.041290 -0.056396 -0.153442 0.974609 -0.164062
0.471680 -0.106873 0.051788 0.065613 -0.988770 0.134277
0.150879 -0.064087 -0.260498 0.069763 0.983398 -0.168335
0.244141 -0.011986 0.176636 0.123169 0.422119 0.897949
-0.650879 0.077148 0.103149 0.070251 0.712891 -0.697754
-0.003731 -0.004574 -0.170288 -0.085999 0.602051 -0.793457
-0.536133 -0.014946 0.085693 0.056274 -0.455811 0.888184
-0.153442 0.018433 -0.002222 -0.152710 0.976562 -0.152710
-0.556641 0.034058 -0.064758 0.030579 0.737305 0.674805
-0.239136 -0.061218 0.323730 -0.007488 1.000000 0.017654
0.380859 0.099548 -0.022018 -0.153931 0.977051 -0.146484
-0.261230 -0.060211 -0.318115 -0.035187 0.999023 0.015282
-0.136719 -0.104797 0.364502 0.065613 -0.988770 0.134277
-0.435791 0.015404 -0.067871 0.297363 0.938965 -0.172363
0.189087 -0.012238 -0.182373 0.124023 0.421387 -0.898438
-0.288818 -0.067078 0.261963 -0.026733 0.999512 -0.019958
-0.729004 0.072205 0.102112 -0.098450 0.558105 -0.823730
0.242798 -0.115112 -0.063782 -0.003904 -1.000000 -0.005630
-0.531250 -0.078186 0.410645 -0.659180 0.145020 -0.737793
0.230591 0.016937 0.152832 0.100891 0.979004 0.176392
0.428467 -0.110474 -0.044159 0.065613 -0.988281 -0.137573
-0.191650 -0.101196 -0.406250 0.068237 -0.987793 -0.140137
0.678223 -0.099915 -0.000414 0.065613 -0.988770 -0.133179
-0.195557 -0.112976 0.209473 -0.003008 -1.000000 0.003136
-0.259277 -0.111084 -0.197632 -0.101379 -0.994629 -0.020050
-0.689453 0.043701 0.079102 -0.110046 0.516602 -0.849121
0.264160 0.083069 -0.007980 -0.154419 0.979980 -0.124146
0.387695 0.061920 0.057465 0.113953 0.503906 0.855957
-0.691895 0.035767 -0.120300 -0.061249 -0.638672 -0.767090
-0.387451 -0.022308 0.022812 0.102600 0.736816 -0.667969
-0.519531 -0.067993 -0.440674 -0.046600 0.997559 0.052917
0.186401 -0.106628 -0.187012 0.065674 -0.988281 -0.137573
-0.207886 -0.001663 0.068054 -0.208252 0.950195 0.232300
-0.190430 0.003502 0.057861 -0.153564 0.973633 0.167725
0.096191 -0.107788 -0.221802 0.065613 -0.988281 -0.137573
0.146240 -0.106567 -0.206665 0.065613 -0.988281 -0.137573
0.152222 -0.027390 0.196411 0.123169 0.422363 0.897949
0.088745 0.055389 -0.009064 -0.154053 0.978516 -0.135620
-0.332764 -0.069458 0.462891 0.058563 0.979004 0.196411
-0.097595 -0.063904 0.343262 0.025574 0.996582 0.079163
-0.070129 -0.113403 -0.132568 -0.003008 -1.000000 -0.011200
0.053070 -0.060730 -0.270020 0.026978 0.996582 -0.079651
-0.216553 -0.108337 0.378418 0.065552 -0.987305 0.143433
0.361084 0.012627 -0.103638 0.100647 0.980469 -0.169556
0.050110 -0.060486 -0.268066 0.026978 0.996582 -0.079651
-0.650391 0.073792 0.144653 0.119263 -0.449463 0.885254
0.280762 -0.115601 0.075684 -0.005569 -1.000000 -0.000448
0.030533 -0.110107 -0.236450 0.095398 -0.985840 -0.138184
0.518066 -0.102600 -0.057709 0.065613 -0.988281 -0.137573
-0.330811 -0.107544 -0.166138 -0.101562 -0.989258 -0.103882
0.218750 -0.115356 0.057678 -0.003008 -1.000000 0.007488
-0.425537 -0.027222 0.067322 0.077759 -0.496094 0.864746
-0.499268 -0.065369 -0.466064 -0.056610 0.997559 0.043396
-0.748047 0.048767 0.127197 -0.116882 -0.668945 0.733887
-0.419434 0.008377 -0.056427 0.116089 0.874023 0.472168
-0.196167 -0.060303 -0.348145 0.007988 0.998047 -0.062164
0.328125 -0.101196 0.164062 0.065613 -0.988770 0.134277
0.177734 0.067871 0.020996 -0.153564 0.973633 0.167725
-0.286865 -0.112305 -0.156616 -0.028702 -0.994141 -0.104431
-0.328125 -0.113586 0.069702 -0.002943 -1.000000 0.007488
-0.197266 -0.113037 -0.131836 -0.002943 -1.000000 -0.011200
0.081360 0.039551 0.096741 -0.152466 0.966797 0.203979
-0.153809 -0.056671 -0.203979 0.024033 0.990723 -0.132568
-0.225342 -0.082214 0.437256 0.436523 -0.065552 0.897461
-0.745605 0.074829 0.150024 -0.061157 -0.637207 0.768066
0.066956 0.011818 0.163574 -0.116516 0.800293 0.587891
-0.082336 -0.102844 -0.342529 0.065613 -0.988281 -0.137573
-0.351562 -0.019638 -0.022446 -0.215088 0.875000 0.433838
-0.675293 0.010986 0.060181 -0.462891 0.398193 -0.791992
0.128540 -0.087524 0.288574 0.330566 -0.326416 0.885254
-0.503418 -0.067078 0.478271 -0.043457 0.999023 -0.017838
0.413574 -0.111633 0.045013 0.065613 -0.988770 0.134277
0.372803 -0.104370 -0.114319 0.065674 -0.988281 -0.137695
0.105957 0.001743 0.179199 -0.084106 0.608398 0.789062
0.002771 -0.113464 -0.156860 -0.005375 -1.000000 -0.004158
-0.489258 -0.065125 -0.461182 -0.035156 0.999023 0.021927
0.274658 -0.101685 0.186401 0.065613 -0.988770 0.134277
-0.667969 0.069092 0.144287 0.108521 -0.456787 0.882812
-0.269287 -0.113892 0.054962 -0.003008 -1.000000 0.007488
0.700684 -0.041901 -0.020416 0.256348 0.728516 -0.635254
0.441650 0.066528 0.048462 0.167358 0.500488 0.849609
0.304932 0.061493 0.068726 0.113953 0.504395 0.855957
0.026703 -0.114624 0.076904 -0.003008 -1.000000 0.007553
-0.192505 0.008011 0.029785 -0.153564 0.973633 0.167725
-0.640137 -0.032867 0.038727 -0.401123 -0.707520 -0.581543
0.114624 -0.060669 -0.248535 0.026978 0.996582 -0.079651
-0.345703 -0.063232 0.386719 -0.035553 0.999512 -0.001279
-0.427979 -0.025223 0.017181 0.022385 0.632812 -0.773926
-0.331787 -0.111572 0.301025 -0.070618 -0.997070 -0.032532
0.267334 -0.104492 0.169067 0.065613 -0.988770 0.134277
-0.011658 -0.059326 -0.274414 0.026978 0.996582 -0.079651
0.199585 -0.115479 0.028946 -0.003008 -1.000000 0.007488
0.591309 0.019623 -0.002626 0.625488 0.779785 -0.027603
-0.062073 -0.065369 -0.347900 0.059418 0.977539 -0.203003
-0.432373 -0.101257 0.326660 -0.398682 -0.787109 -0.470703
-0.459229 -0.070679 0.517578 0.059143 0.963379 0.261475
0.167236 -0.062347 -0.243896 0.057098 0.985840 -0.156250
0.483398 0.066162 0.042511 0.063293 0.465576 0.882812
0.321045 -0.115906 -0.015884 -0.003008 -1.000000 -0.011200
-0.729492 0.075562 -0.150024 -0.009132 -0.636230 -0.771484
0.139771 -0.104126 0.234375 0.065613 -0.988770 0.134277
0.337402 -0.112915 0.072998 0.065613 -0.988281 0.137207
0.212891 -0.113220 -0.127808 0.089600 -0.982422 -0.163208
-0.757812 0.054749 0.098389 -0.675293 -0.324463 -0.662598
-0.112793 -0.012283 0.165527 -0.150024 0.674805 0.722656
0.514160 -0.109741 -0.008072 0.065247 -0.988770 -0.132935
-0.559082 0.030212 0.112000 0.084961 -0.465088 0.881348
-0.319580 -0.111450 -0.138916 -0.102112 -0.993652 -0.042694
-0.184326 -0.112610 -0.172729 -0.003008 -1.000000 -0.011200
0.541504 -0.016113 -0.076294 0.149658 0.475586 -0.866699
0.289551 0.016891 -0.121338 0.100647 0.980469 -0.169556
-0.438232 -0.070374 0.343506 -0.252686 0.922852 -0.290039
0.109863 0.059082 0.007370 -0.154785 0.981445 0.115173
-0.060181 -0.061798 -0.321777 0.027039 0.996582 -0.079651
0.016647 0.032104 -0.081177 -0.153442 0.974609 -0.163940
-0.135498 -0.034241 -0.182373 0.141113 0.559082 -0.816895
0.526855 -0.095703 0.106873 0.065613 -0.988770 0.134277
-0.158936 -0.063110 0.353516 0.025131 0.996582 0.079407
-0.169312 0.009041 0.045105 -0.153564 0.973633 0.167725
-0.347656 -0.016754 0.001434 -0.204468 0.926758 0.315186
-0.464111 -0.105835 -0.507812 0.100098 -0.975098 -0.197021
-0.136719 -0.055328 -0.201172 -0.024872 0.801270 -0.598145
-0.332275 -0.075684 0.225586 -0.484131 0.856445 -0.179810
-0.383301 -0.003428 -0.046692 0.232910 0.830078 0.507324
0.327148 -0.059204 0.188965 0.191162 0.709961 0.677734
0.188477 -0.070374 0.257812 0.097595 0.846680 0.522949
-0.027557 -0.100220 -0.334473 0.065430 -0.985840 -0.155884
-0.052917 -0.114319 0.089417 -0.003008 -1.000000 0.007553
-0.514160 -0.068481 -0.424561 -0.048096 0.997559 0.046539
-0.265625 -0.104980 -0.414551 0.065613 -0.988281 -0.137573
0.205322 -0.115417 -0.027435 -0.003008 -1.000000 -0.011200
-0.381592 -0.110291 -0.425781 -0.005886 -1.000000 -0.003136
-0.614746 -0.003866 -0.039795 -0.119324 0.495117 0.860352
-0.771973 0.085266 -0.150391 -0.081055 -0.192871 -0.978027
-0.375732 -0.009178 -0.040710 0.232910 0.830078 0.507324
-0.621582 -0.040222 -0.025696 -0.616211 -0.172974 0.768555
-0.160522 -0.114563 0.013824 -0.003008 -1.000000 0.006721
0.364990 -0.007729 0.153687 0.508789 0.564453 0.650391
0.399170 0.087219 -0.039185 0.089478 0.506836 -0.857422
-0.298584 -0.110413 -0.170410 -0.101562 -0.989258 -0.103882
0.464844 -0.100220 0.104370 0.065613 -0.988770 0.134277
0.578613 -0.098083 -0.061310 0.065613 -0.988281 -0.137573
0.249512 -0.072937 0.237549 0.137939 0.640625 0.755371
0.734375 -0.074036 -0.037567 0.530762 0.435547 -0.727051
-0.027084 0.019150 0.116577 -0.153564 0.973633 0.167603
0.591797 -0.060547 -0.088684 0.319824 0.537598 -0.779785
0.008629 -0.114319 -0.072388 -0.003008 -1.000000 -0.011200
0.083801 0.013412 0.164795 -0.116699 0.797363 0.592285
-0.285400 -0.100220 -0.449219 0.200806 -0.937500 -0.283936
-0.027481 -0.109009 0.280273 0.065063 -0.986328 0.150513
-0.314697 -0.110840 -0.378174 -0.005886 -1.000000 -0.003136
0.021927 -0.096252 0.328369 0.211548 -0.780273 0.588379
-0.271973 -0.111389 0.191895 -0.098083 -0.990234 0.098877
-0.102051 -0.045471 -0.190918 -0.069336 0.608887 -0.790039
0.095703 0.018631 0.158203 -0.088013 0.888672 0.449707
-0.632812 -0.036499 0.056396 -0.169678 -0.903809 0.393066
0.172607 -0.035217 0.197510 0.129761 0.462402 0.876953
-0.094055 0.001044 0.154419 -0.151367 0.959473 0.237427
-0.527832 -0.109802 0.497803 -0.069214 -0.995605 0.062012
-0.128784 -0.113159 -0.139771 -0.003008 -1.000000 -0.011200
-0.289795 -0.109680 -0.185669 -0.101624 -0.989258 -0.103882
-0.443604 -0.111023 0.388428 -0.065186 -0.995117 -0.076477
0.170532 0.023849 0.148804 0.100891 0.979004 0.176392
-0.310059 -0.107178 0.432861 0.065247 -0.983398 0.170532
-0.260986 -0.067871 -0.437744 0.096191 0.878906 -0.467529
-0.346191 -0.019409 0.041809 0.145264 0.985840 -0.086304
-0.370605 -0.105713 0.151123 -0.098083 -0.990234 0.098816
-0.484131 0.003124 -0.038147 0.037537 0.685059 0.727539
0.244019 0.044769 0.086670 0.113892 0.504395 0.855957
0.134888 0.009277 -0.174316 -0.081970 0.593262 -0.800781
-0.429199 0.013962 -0.064697 0.297363 0.938965 -0.172363
0.259277 -0.016891 -0.174927 0.124023 0.421387 -0.898438
-0.173218 -0.009354 -0.128784 -0.226562 0.942383 -0.246948
0.315186 -0.109863 -0.102295 0.065613 -0.988281 -0.137573
-0.029953 -0.112976 -0.234131 -0.005886 -1.000000 -0.003136
-0.483643 -0.104187 0.067444 -0.078186 -0.992676 0.091919
-0.044220 0.013870 0.130737 -0.119629 0.977051 0.177002
-0.140015 -0.113892 0.112061 -0.003008 -1.000000 0.007488
-0.208130 -0.061737 0.348877 -0.007465 0.997070 0.075867
0.532715 -0.078308 0.124817 0.323975 -0.533691 0.780762
-0.284180 -0.063416 0.303711 -0.084106 0.991699 -0.095642
-0.171753 -0.113403 -0.107910 -0.003008 -1.000000 -0.011200
0.024948 0.025528 0.125366 -0.123840 0.913574 0.387695
-0.271484 -0.028427 0.111145 -0.228149 0.940918 0.250977
0.400879 -0.111633 -0.048737 0.065674 -0.988281 -0.137573
-0.740234 0.031799 0.095337 -0.855957 -0.510742 0.082947
0.180054 -0.010559 -0.182861 0.124023 0.421387 -0.898438
-0.103210 0.014999 0.070923 -0.153564 0.973633 0.167603
-0.260498 -0.060120 -0.322998 -0.007553 1.000000 -0.012352
0.274658 -0.090210 -0.223999 0.292236 -0.473633 -0.830566
0.743164 -0.093567 0.016586 0.065308 -0.980957 0.181641
-0.616211 -0.018738 -0.031525 -0.129395 0.494385 0.859375
-0.031647 -0.094788 0.352539 0.254395 -0.813477 0.522949
0.133911 -0.115295 -0.018875 -0.003008 -1.000000 -0.011200
0.386719 0.034912 0.073486 0.113953 0.504395 0.855957
0.019043 -0.057831 0.224121 -0.006847 0.999512 0.022461
-0.229980 -0.111755 -0.260742 -0.005440 -1.000000 -0.004097
-0.157593 -0.059082 -0.304443 -0.007549 1.000000 -0.013756
-0.568359 -0.100037 -0.025940 -0.458252 -0.741211 -0.490967
0.513672 -0.009888 -0.078247 0.182739 0.501465 -0.845703
-0.046204 -0.114502 -0.044647 -0.003008 -1.000000 -0.011200
0.583496 -0.097473 -0.063538 0.065613 -0.988281 -0.137573
-0.327393 -0.105835 0.450195 0.065491 -0.987305 0.145142
-0.567383 -0.058289 -0.002111 -0.146973 0.491455 0.858398
-0.331543 -0.065002 -0.316406 -0.078125 0.992676 0.091064
-0.551758 -0.052490 -0.003031 -0.119385 0.495117 0.860352
0.575195 -0.101746 0.039185 0.065613 -0.988770 0.134277
-0.046051 -0.054077 0.208984 -0.006191 0.912598 0.409180
-0.703613 0.024109 0.071838 -0.220947 0.275879 -0.935547
-0.761719 0.051270 0.103760 -0.675293 -0.324463 -0.662598
-0.384277 -0.105347 0.294189 -0.095337 -0.801758 -0.589844
-0.761230 0.052948 -0.102600 -0.601074 -0.394043 0.695312
-0.395996 -0.067505 0.357666 -0.065369 0.997559 -0.028214
0.317383 -0.099976 -0.172363 0.065613 -0.988281 -0.137573
-0.750977 0.079102 0.108643 -0.080505 0.577637 -0.812012
-0.764160 0.077698 0.150879 -0.063965 -0.637207 0.768066
0.104797 -0.064636 0.275391 0.049072 0.985840 0.161133
-0.288330 -0.066345 0.229370 -0.024734 0.966309 0.256104
0.721191 -0.078491 0.048279 0.208008 -0.468018 0.858887
-0.328857 -0.113464 0.088257 -0.003008 -1.000000 0.007553
-0.076904 -0.042145 -0.190674 -0.081482 0.592285 -0.801758
0.278809 -0.101685 -0.178589 0.065613 -0.988281 -0.137573
-0.350586 -0.034119 -0.061829 -0.148926 0.693359 -0.705078
0.386719 -0.116089 -0.017929 -0.004288 -1.000000 -0.012222
-0.114136 -0.063232 0.340332 0.025192 0.996582 0.079407
-0.521484 -0.071594 -0.533691 0.006096 0.807617 -0.589844
-0.129639 -0.102112 -0.370361 0.065613 -0.988281 -0.137573
-0.420654 -0.063660 -0.418457 -0.048798 0.998047 0.035400
-0.395264 -0.110352 -0.393311 -0.005440 -1.000000 -0.003904
0.051147 -0.114807 0.064026 -0.002943 -1.000000 0.007488
0.053986 -0.112061 0.219238 0.087646 -0.983887 0.156006
-0.689453 0.102295 -0.128784 0.103699 0.973145 0.204590
-0.175293 -0.113159 -0.126587 -0.003008 -1.000000 -0.011200
-0.363037 -0.113770 -0.022186 -0.003008 -1.000000 -0.011200
-0.001677 -0.040894 0.199585 -0.085571 0.597168 0.797363
0.131714 -0.115356 0.019714 -0.003008 -1.000000 0.007488
0.530762 0.054993 -0.033630 0.272461 0.578125 -0.769043
0.468750 -0.092285 0.142090 0.247192 -0.535645 0.807617
-0.176025 -0.008133 -0.121521 -0.226562 0.942383 -0.246948
0.103455 -0.114685 -0.063538 -0.003008 -1.000000 -0.011200
-0.438721 -0.071411 -0.517578 0.279785 0.751953 -0.596680
0.049377 -0.110596 0.231079 0.087646 -0.983887 0.156006
-0.147339 0.015350 0.028503 -0.153564 0.973633 0.167603
-0.431885 -0.109924 -0.454346 -0.005825 -1.000000 -0.003136
0.011169 0.036285 -0.051147 -0.153442 0.974609 -0.163940
-0.463867 -0.066101 0.453125 -0.035614 0.999023 -0.017838
-0.450195 -0.067993 0.111511 0.060425 0.995605 -0.069031
-0.316650 -0.063110 0.395996 -0.007103 1.000000 0.018814
-0.367432 -0.087219 -0.259277 -0.670898 -0.074402 0.737793
-0.496582 -0.079956 0.101868 -0.675781 -0.024872 0.736816
0.700684 -0.049377 0.030090 0.255615 0.724121 0.640625
-0.139648 -0.113892 0.111694 -0.003008 -1.000000 0.007488
0.584961 -0.044495 0.081665 0.319336 0.532715 0.783691
-0.067261 -0.108887 0.300293 0.065979 -0.988770 0.134277
-0.130859 -0.045013 0.189087 -0.061188 0.613770 0.787109
-0.081970 -0.072632 0.369873 0.052979 0.885742 0.461426
-0.637695 0.057281 0.134888 0.101990 -0.456543 0.883789
-0.277344 -0.064026 0.402344 0.025177 0.995605 0.089478
-0.289551 -0.066467 -0.247437 -0.024689 0.999512 0.024246
-0.457031 -0.068726 0.395020 -0.034210 0.997559 -0.061554
-0.701660 0.052246 -0.133057 -0.053558 -0.621582 -0.781250
-0.492676 -0.028168 0.013382 0.013618 0.624023 -0.781250
0.020859 -0.095398 0.329834 0.211548 -0.780273 0.588379
0.703613 -0.043304 0.022003 0.255615 0.724121 0.640625
0.612305 -0.098694 -0.041077 0.065674 -0.988281 -0.137573
-0.553223 -0.104919 -0.001502 -0.075745 -0.990723 -0.112488
0.377930 0.088257 0.042084 -0.018799 0.662109 0.749512
-0.276855 -0.114014 0.033295 -0.003008 -1.000000 0.007488
-0.218750 -0.114075 -0.031860 -0.003008 -1.000000 -0.011200
-0.320557 -0.108459 0.173218 -0.098083 -0.990234 0.098877
-0.444580 -0.066650 -0.395020 -0.049133 0.997070 0.062012
0.033569 -0.111023 0.235229 0.066589 -0.988770 0.135254
-0.308105 -0.107910 0.234253 -0.066528 -0.944336 -0.321777
0.313477 0.017303 0.105469 0.146484 0.951660 0.270264
-0.031708 -0.113892 0.247559 -0.005886 -1.000000 -0.000832
0.210938 0.020584 -0.146729 0.100586 0.980469 -0.169556
-0.488281 -0.103149 0.074585 -0.078247 -0.992676 0.091980
-0.509277 -0.105591 -0.409668 -0.231567 -0.942871 0.239258
-0.460449 -0.068237 -0.374756 -0.054352 0.997070 0.054688
-0.511719 0.037384 0.075256 0.129150 0.791504 -0.597168
-0.543457 -0.095764 -0.422852 -0.495117 -0.677734 0.543945
-0.030426 -0.114441 -0.051727 -0.003008 -1.000000 -0.011200
0.415283 0.039612 0.066956 0.113953 0.504395 0.855957
-0.349365 -0.111206 0.308838 -0.070496 -0.994141 -0.081421
0.583008 -0.102661 0.028305 0.065613 -0.988770 0.134277
-0.274902 -0.066345 -0.435547 0.060669 0.985352 -0.159668
0.320068 -0.115784 0.045044 -0.005630 -1.000000 0.004353
-0.294189 -0.113220 -0.087646 -0.003008 -1.000000 -0.011200
-0.394775 -0.069092 0.319092 -0.080078 0.996094 -0.033905
0.270508 0.022202 0.106140 0.092712 0.899414 0.427002
-0.329102 -0.110413 0.281982 -0.070312 -0.994141 -0.081848
-0.296387 -0.012764 0.029541 -0.231689 0.939941 0.250732
-0.352783 -0.100037 0.253418 -0.515137 -0.656738 -0.550781
-0.305664 -0.053955 -0.176514 -0.230103 0.936523 -0.265381
-0.723633 0.035004 0.117310 -0.143433 -0.678223 0.720703
-0.420654 -0.109314 0.477539 0.099182 -0.976562 0.192139
0.273682 -0.058319 0.198853 0.075073 0.640625 0.764160
-0.156616 -0.044098 0.189819 0.218872 0.380127 0.898926
0.744141 -0.095032 -0.004051 0.065613 -0.988770 -0.133423
-0.021072 -0.103455 0.318115 0.065613 -0.988770 0.134277
-0.050262 0.014534 0.122192 -0.153564 0.973633 0.167603
0.732422 -0.073303 -0.038544 0.530762 0.435547 -0.727051
0.117554 -0.100769 -0.261963 0.065613 -0.988281 -0.137573
-0.172363 -0.063965 -0.381348 0.060089 0.987305 -0.148315
-0.638672 0.048248 -0.128784 0.101746 -0.456543 -0.883789
0.003103 -0.114075 0.175171 -0.005630 -1.000000 -0.000256
-0.212646 -0.112854 0.231689 -0.005630 -1.000000 0.000704
0.629395 -0.010361 -0.015076 0.402832 0.780762 -0.477295
0.134277 -0.031860 0.201050 0.119629 0.473877 0.872559
-0.464111 -0.065857 -0.503418 0.057922 0.985840 -0.157104
-0.427490 0.013290 0.062225 0.233398 0.822266 -0.518555
-0.171265 -0.112000 -0.277588 -0.005375 -1.000000 -0.004158
0.219849 -0.106445 0.177979 0.065613 -0.988770 0.134277
0.501953 -0.002502 -0.076355 0.182617 0.501465 -0.845703
0.120117 -0.014206 -0.190063 -0.077332 0.584473 -0.807617
-0.394531 -0.034607 0.063477 0.140869 0.520508 0.842285
0.339355 -0.116089 -0.003990 -0.003008 -1.000000 -0.011200
0.490967 -0.035431 -0.098267 0.182617 0.501465 -0.845703
0.307861 0.019562 0.100586 0.152222 0.950684 0.270020
-0.551758 -0.090454 -0.534180 -0.686523 -0.017441 -0.727051
-0.580078 -0.104431 -0.478760 -0.364502 -0.930176 0.043579
0.049866 -0.114319 0.143677 -0.005630 -1.000000 -0.000128
-0.445557 0.019012 -0.066223 0.189209 0.973145 0.130127
0.278320 0.037872 -0.084534 0.113098 0.505371 -0.855469
-0.118164 -0.033081 -0.180298 -0.044250 0.594238 -0.803223
-0.060120 0.010117 0.138672 -0.145020 0.975098 0.167969
-0.743652 0.047852 0.127197 -0.116882 -0.668945 0.733887
-0.290771 -0.111023 -0.365967 -0.005886 -1.000000 -0.003136
-0.756836 0.065186 0.141113 -0.060944 -0.635254 0.770020
-0.199097 -0.061737 0.348389 0.021622 0.997070 0.075867
-0.343506 -0.028595 -0.055878 -0.235718 0.723145 -0.648926
0.177002 0.015587 0.172119 0.130981 0.457275 0.879395
-0.591309 -0.090027 -0.464844 -0.688965 0.008720 0.725098
-0.509277 -0.108948 0.417725 -0.064087 -0.995117 -0.076111
-0.485840 -0.097778 0.104248 -0.247681 -0.917969 0.309570
-0.598633 -0.069641 -0.022430 -0.407959 -0.844727 -0.346680
0.002665 -0.114746 -0.030807 -0.003008 -1.000000 -0.011200
-0.392334 -0.106018 0.126465 -0.086060 -0.991211 0.098694
-0.272461 -0.021530 0.084351 -0.228516 0.940430 0.250977
-0.563965 -0.071655 0.501465 -0.243042 0.941406 0.234741
0.450195 -0.027206 0.113708 0.464600 0.456055 0.759277
-0.709961 0.020462 0.073303 -0.602051 -0.194214 -0.774414
0.212769 -0.046509 -0.195557 0.130371 0.441650 -0.887695
-0.366699 -0.026596 -0.058990 0.120544 -0.199585 -0.972656
-0.493896 -0.032898 -0.070129 0.097839 -0.520508 -0.848145
-0.233154 -0.060852 0.305908 -0.007488 1.000000 0.017334
0.176636 0.038818 0.101257 0.128662 0.651855 0.747559
0.604980 -0.096497 -0.060120 0.065613 -0.988281 -0.137573
-0.030563 0.013168 -0.141479 -0.089294 0.908691 -0.407715
-0.072815 -0.112976 -0.176880 -0.005440 -1.000000 -0.004097
0.570801 -0.101318 0.044128 0.065613 -0.988770 0.134277
0.180176 -0.114685 -0.091431 -0.005375 -1.000000 -0.005760
0.552734 0.047913 0.028366 0.562988 0.813477 0.147461
-0.108215 -0.059265 0.268555 -0.007488 1.000000 0.017654
-0.087524 -0.058044 -0.268799 -0.007549 1.000000 -0.013695
-0.481445 0.033081 0.080017 0.294189 0.934082 0.202026
-0.192139 0.010422 -0.014633 -0.153687 0.976074 -0.154175
-0.407227 -0.066895 -0.354980 -0.034851 0.999023 0.032593
-0.353027 -0.104492 0.259033 -0.515137 -0.656738 -0.550781
0.273682 -0.095947 0.220215 0.137207 -0.887695 0.439941
-0.373291 -0.101807 -0.179077 -0.101562 -0.989746 -0.102539
-0.407471 -0.063782 -0.398682 -0.048767 0.997559 0.047821
-0.394287 -0.029358 0.063232 0.076416 -0.411133 0.908203
-0.071594 -0.113892 -0.091309 -0.003008 -1.000000 -0.011200
0.211670 -0.112366 0.138794 0.065369 -0.985352 0.157593
-0.321289 -0.113770 -0.035919 -0.003008 -1.000000 -0.011139
-0.327637 -0.110718 -0.397705 -0.005886 -1.000000 -0.003136
-0.043060 0.032715 -0.021591 -0.153442 0.974609 -0.163940
0.427979 -0.099060 -0.126221 0.065613 -0.988281 -0.137573
-0.279541 -0.111389 -0.294189 -0.005375 -1.000000 -0.004158
0.596191 -0.065308 -0.089966 0.337402 0.480957 -0.809082
-0.398926 -0.110168 -0.438477 -0.005886 -1.000000 -0.003136
-0.437500 -0.068726 0.375977 -0.084839 0.995605 -0.043762
-0.079895 -0.060364 -0.310791 0.026978 0.996582 -0.079651
-0.155640 -0.061310 -0.347900 0.026978 0.996582 -0.079651
-0.414551 -0.093140 0.302002 -0.672363 0.028351 -0.739746
-0.377930 -0.065125 -0.466309 0.060272 0.991211 -0.117981
-0.321777 -0.019333 -0.029678 -0.231323 0.940918 -0.246460
-0.045807 0.029099 -0.040558 -0.153442 0.974609 -0.164062
0.453857 0.100525 -0.024109 0.106018 0.586426 -0.803223
-0.551270 -0.059570 -0.049622 -0.101807 -0.709961 -0.696777
0.186890 -0.114990 -0.060425 -0.003008 -1.000000 -0.011200
-0.090149 -0.062012 0.317627 0.025177 0.996582 0.079468
-0.205688 -0.100159 -0.413330 0.215698 -0.925781 -0.310303
-0.732910 0.057617 0.093140 -0.101074 0.480469 -0.871094
-0.577637 0.027298 0.059631 0.013222 0.620605 -0.784180
-0.132935 -0.114075 -0.056122 -0.003008 -1.000000 -0.011200
-0.476562 0.030960 0.076355 0.258057 0.824219 -0.504395
0.040588 -0.000287 -0.171753 -0.081909 0.595215 -0.799316
-0.457275 -0.109741 -0.455322 -0.005886 -1.000000 -0.003136
-0.373535 -0.102478 0.180664 -0.097290 -0.990234 0.098083
-0.314697 -0.103333 0.456299 0.061432 -0.925781 0.373535
-0.392822 -0.058441 0.112305 -0.206543 0.953125 0.221924
-0.461670 -0.021347 -0.072693 0.080933 -0.476074 -0.875488
-0.414307 -0.068542 -0.156860 -0.159790 0.969238 -0.187256
-0.483643 -0.069946 0.520996 0.093811 0.969238 0.227295
-0.193359 -0.113708 0.108887 -0.003008 -1.000000 0.007553
-0.056976 0.017487 -0.099121 -0.153442 0.974609 -0.164062
0.338867 -0.115906 0.028824 -0.003649 -1.000000 0.007488
0.029953 -0.071960 -0.327393 0.269287 0.866699 -0.419678
0.118042 0.052490 0.055878 -0.153564 0.973633 0.167725
0.557617 -0.080688 -0.111938 0.325928 -0.530273 -0.782715
0.201050 -0.029526 0.190674 0.123108 0.422119 0.897949
-0.414551 -0.020081 0.022110 0.072815 0.683594 -0.726562
0.429443 -0.021957 0.123352 0.464600 0.456055 0.759277
0.181030 -0.115234 0.059387 -0.003008 -1.000000 0.007488
-0.566895 -0.089966 -0.036530 -0.665039 -0.001448 -0.746582
0.080505 -0.115234 -0.008919 -0.003008 -1.000000 -0.011139
-0.656738 -0.027054 0.062317 -0.506836 -0.817871 -0.272461
0.441162 0.083191 0.038361 0.162354 0.541992 0.824707
-0.027359 -0.058929 -0.274658 0.027039 0.996582 -0.079651
-0.611816 -0.028824 0.071899 -0.132446 -0.720703 0.680664
-0.095642 -0.113342 -0.132080 -0.003008 -1.000000 -0.011200
-0.309326 -0.109375 0.175537 -0.098083 -0.990234 0.098877
0.429688 -0.098083 -0.132568 0.065613 -0.988281 -0.137573
0.082520 0.044678 0.068726 -0.153564 0.973633 0.167725
0.474121 0.112244 0.005188 0.446289 0.880859 0.157959
0.764648 -0.090942 0.017456 0.282715 -0.701172 0.654297
-0.232544 -0.105347 -0.395996 0.065613 -0.988281 -0.137573
-0.025177 -0.058319 0.220825 -0.006847 1.000000 0.001920
0.197632 -0.114624 -0.118896 0.000512 -1.000000 -0.009468
-0.108948 -0.051025 0.197266 -0.069885 0.751953 0.655273
0.517090 -0.094604 0.114502 0.063782 -0.960938 0.268799
-0.067322 -0.099365 -0.356445 0.131836 -0.970215 -0.202515
-0.377197 -0.112000 0.414795 -0.005886 -1.000000 -0.000768
-0.186157 -0.114258 0.044067 -0.003008 -1.000000 0.007488
0.543457 -0.054352 0.100525 0.171631 0.598633 0.782227
-0.517090 -0.071228 -0.407471 -0.431885 0.782227 0.449219
-0.284668 -0.064758 -0.279297 -0.078125 0.992676 0.091064
-0.064636 -0.114685 -0.022324 -0.003008 -1.000000 -0.011200
-0.424316 -0.066528 -0.379395 -0.078125 0.993164 0.088196
0.433350 -0.004147 -0.109192 0.490967 0.506348 -0.708984
-0.651855 -0.010849 -0.043335 -0.128418 0.327881 0.936035
-0.532715 -0.069641 -0.431885 -0.120056 0.982910 0.138184
-0.138916 -0.114075 0.087097 -0.003008 -1.000000 0.007488
-0.047058 -0.058655 0.254639 -0.006844 0.999512 0.028336
-0.408203 -0.060699 0.107605 -0.256104 0.929688 0.265381
0.462402 -0.023788 -0.103149 0.470459 0.455322 -0.755859
-0.069519 0.009689 0.132690 -0.153564 0.973633 0.167725
0.355469 0.014496 0.095032 0.100891 0.979004 0.176392
0.262451 -0.115601 -0.027832 -0.003008 -1.000000 -0.011200
-0.342773 -0.113403 0.094849 -0.050232 -0.997070 0.054688
0.120789 -0.115295 0.024673 -0.003008 -1.000000 0.007488
0.429443 0.019974 -0.075134 0.113098 0.505371 -0.855469
0.420654 -0.101013 0.119934 0.065613 -0.988770 0.134277
-0.207397 -0.112854 0.240234 -0.005630 -1.000000 -0.000192
-0.102783 -0.114075 0.096497 -0.003008 -1.000000 0.007488
0.411865 -0.097290 -0.146484 0.065674 -0.988281 -0.137695
-0.456299 -0.107483 0.366699 -0.351807 -0.933105 -0.074158
-0.420410 -0.067749 0.378418 -0.077759 0.992676 -0.092529
0.426025 -0.105713 -0.079346 0.065674 -0.988281 -0.137573
-0.180908 -0.112122 -0.244507 -0.005375 -1.000000 -0.004097
-0.154175 -0.113220 0.196655 -0.005630 -1.000000 0.005695
-0.512207 -0.084656 -0.086365 -0.676758 -0.034851 -0.735352
0.397461 -0.111816 0.051727 0.065613 -0.988770 0.134277
-0.324463 -0.112244 0.387695 -0.005886 -1.000000 -0.000768
-0.373535 -0.101807 -0.178833 -0.101562 -0.989746 -0.102539
-0.243530 -0.111389 -0.329102 -0.005886 -1.000000 -0.003136
0.184448 -0.115051 -0.053650 -0.003008 -1.000000 -0.011200
-0.182617 -0.061890 -0.364502 0.026978 0.996582 -0.079651
-0.223755 -0.062805 0.370117 0.024750 0.996582 0.079468
-0.606934 -0.023911 0.028717 -0.119446 0.495117 -0.860840
-0.387451 -0.051117 -0.089294 -0.231323 0.940918 -0.246582
-0.345459 -0.077698 0.240356 -0.413818 0.785156 -0.460449
-0.014771 -0.115051 0.000813 -0.003008 -1.000000 0.006721
-0.635742 0.084961 0.139404 0.477539 0.715332 0.510254
0.066223 -0.006969 -0.179321 -0.081604 0.592773 -0.801270
-0.738770 0.080750 -0.107361 -0.059326 0.584961 0.808594
0.490479 0.029648 -0.060242 0.100037 0.410645 -0.906250
-0.374512 -0.106201 0.142212 -0.098083 -0.990234 0.098816
-0.400635 -0.111084 0.067078 -0.098083 -0.990234 0.098877
0.115906 0.052063 0.056366 -0.153564 0.973633 0.167725
-0.235962 0.004753 -0.006905 -0.153564 0.975586 -0.156738
-0.273193 -0.066223 0.261719 -0.083740 0.996094 -0.022446
-0.679199 0.088318 0.151855 0.119446 -0.135498 0.983398
-0.083740 -0.036407 0.187378 -0.085205 0.595703 0.798828
-0.352539 -0.063599 -0.443115 0.026855 0.996582 -0.079651
0.628418 -0.058044 0.073059 0.313477 0.533691 0.785156
-0.200806 -0.064026 -0.393066 0.059784 0.985352 -0.158936
-0.435791 -0.073303 0.333008 -0.056763 0.952637 -0.299316
-0.619629 -0.052460 -0.031891 -0.627441 -0.778320 -0.027786
0.225464 0.069763 -0.052887 -0.153442 0.974609 -0.164062
-0.563477 -0.037537 -0.013313 -0.119385 0.495117 0.860352
0.044891 0.038208 0.071777 -0.153564 0.973633 0.167725
0.174194 0.059692 -0.064697 -0.153442 0.974609 -0.163940
-0.185181 -0.113159 0.185181 -0.003008 -1.000000 0.007488
-0.223389 -0.060730 0.302734 -0.007805 1.000000 0.017654
-0.278076 -0.079468 0.458740 0.350342 -0.029419 0.936035
0.386475 0.023315 -0.079224 0.151001 0.674805 -0.722656
-0.275146 -0.112000 0.182983 -0.098083 -0.990234 0.098877
0.184082 0.067139 0.031204 -0.153564 0.973633 0.167603
-0.689453 0.007473 0.095276 -0.132446 -0.720703 0.680664
-0.075562 -0.048218 0.197510 -0.075256 0.707031 0.703613
-0.442139 -0.066650 0.411377 -0.084778 0.995117 -0.052917
-0.243530 -0.060516 -0.290283 -0.078186 0.992676 0.090271
0.302002 -0.070435 -0.213623 0.391846 0.606934 -0.691406
0.454590 0.005276 -0.086304 0.190796 0.816406 -0.544922
-0.278076 -0.112488 0.311279 -0.005569 -1.000000 -0.000320
-0.615234 -0.050659 0.026733 -0.500977 -0.575195 -0.646484
-0.661133 0.067078 0.142578 0.100525 -0.450439 0.887207
-0.392090 -0.110535 0.337646 -0.069031 -0.994141 -0.080933
0.002110 0.003263 0.165039 -0.073303 0.782227 0.618652
-0.573730 -0.076111 0.454590 -0.366943 0.926270 -0.085144
0.133789 -0.109985 -0.188232 0.065674 -0.988281 -0.137451
0.307373 0.003839 -0.157227 0.106323 0.620605 -0.776855
-0.703613 0.076233 -0.150269 0.043243 -0.552734 -0.832031
-0.305420 -0.111755 -0.145996 -0.034546 -0.994141 -0.104370
0.128540 0.048401 -0.088867 -0.153442 0.974121 -0.164551
0.333008 -0.033997 -0.172729 0.123962 0.421143 -0.898438
-0.404785 -0.071106 0.310059 -0.074402 0.925781 -0.370850
